ply
format ascii 1.0
comment VCGLIB generated
element vertex 470
property float x
property float y
property float z
element face 0
property list uchar int vertex_indices
end_header
1.0444 3.69706 -0.244638 
0.626141 3.78451 -0.211747 
0.154811 3.83602 -0.203686 
-0.215976 3.82613 -0.121638 
-0.603832 3.79109 -0.17496 
-1.01048 3.69186 -0.105369 
-1.33417 3.59159 -0.0925084 
-1.80802 3.38344 -0.200169 
-2.13146 3.18655 -0.100119 
-2.43044 2.96968 -0.144785 
-2.72354 2.7056 -0.182534 
-3.01392 2.38065 -0.166319 
-3.24731 2.03948 -0.125126 
-3.44521 1.68798 -0.144779 
-3.60121 1.32011 -0.131323 
-3.72784 0.902882 -0.149941 
-3.80552 0.497954 -0.139192 
-3.83082 0.115625 -0.107595 
-3.8299 -0.301156 -0.180263 
-3.76628 -0.742912 -0.140957 
-3.67084 -1.11689 -0.162052 
-3.50958 -1.56185 -0.210512 
-3.28591 -1.97978 -0.161304 
-2.92421 -2.48914 -0.189647 
-2.61037 -2.81483 -0.181973 
-2.25879 -3.10221 -0.181179 
-1.77207 -3.39724 -0.1276 
-1.45083 -3.55179 -0.137285 
-1.00775 -3.70313 -0.194502 
-0.606945 -3.78789 -0.176731 
-0.241435 -3.82658 -0.0942452 
0.0950132 -3.82829 -0.0943335 
0.44457 -3.81171 -0.178167 
0.816363 -3.74781 -0.206122 
1.39703 -3.57565 -0.262151 
1.96154 -3.297 -0.227137 
2.28401 -3.08595 -0.185955 
2.59476 -2.8308 -0.212975 
2.88149 -2.53762 -0.224348 
3.14239 -2.21522 -0.250627 
3.42243 -1.73729 -0.228471 
3.66151 -1.17108 -0.292499 
3.76874 -0.724793 -0.227201 
3.81267 -0.391014 -0.0988523 
3.83841 -0.0588158 -0.247986 
3.81815 0.2632 -0.0596784 
3.79742 0.561417 -0.233906 
3.71172 1.01263 -0.300948 
3.49319 1.58884 -0.224017 
3.32587 1.91532 -0.169804 
3.10939 2.25683 -0.258245 
2.83396 2.594 -0.249386 
2.55102 2.86616 -0.165015 
2.26047 3.10445 -0.217485 
1.90266 3.33355 -0.171133 
1.55103 3.50822 -0.223859 
1.29075 3.59519 0.00738933 
0.767047 3.73538 0.0817991 
0.379009 3.79877 0.062019 
-0.0156028 3.80161 0.195738 
-0.403427 3.78078 0.175864 
-0.797743 3.72091 0.144462 
-1.59125 3.46565 0.0709363 
-1.91384 3.28405 0.178708 
-2.18091 3.09576 0.272674 
-2.43908 2.90904 0.208168 
-2.68348 2.69258 0.180167 
-2.90096 2.45844 0.169847 
-3.14461 2.132 0.194701 
-3.33803 1.81397 0.198282 
-3.50022 1.4825 0.18977 
-3.64595 1.08189 0.167899 
-3.73644 0.701005 0.172825 
-3.76993 0.384277 0.25724 
-3.78993 0.0517546 0.228617 
-3.78467 -0.268315 0.222521 
-3.75479 -0.583059 0.179805 
-3.67966 -0.875895 0.301811 
-3.62146 -1.15342 0.16593 
-3.50662 -1.47898 0.150869 
-3.35999 -1.79497 0.121975 
-3.11164 -2.22261 0.0180942 
-2.87055 -2.49648 0.161165 
-2.64077 -2.73829 0.160113 
-2.36739 -2.98407 0.12986 
-2.04218 -3.22828 0.037885 
-1.67592 -3.40171 0.233696 
-1.21949 -3.6069 0.100575 
-0.891668 -3.69388 0.187653 
-0.5604 -3.76397 0.143956 
1.11806 -3.65846 -0.0360315 
1.69357 -3.43251 -0.0450656 
2.03768 -3.22034 0.11942 
2.38435 -2.96901 0.135091 
2.68732 -2.70013 0.124648 
2.94923 -2.41736 0.102067 
3.28021 -1.96401 -0.0106532 
3.53442 -1.47075 -0.0456294 
3.63274 -1.15866 0.0794763 
3.72508 -0.828117 0.0776004 
3.80604 -0.0472915 0.132777 
3.74754 0.744379 0.0267743 
3.59828 1.30841 -0.0583698 
3.42805 1.66361 0.122482 
3.185 2.10013 0.0720718 
2.95079 2.42233 0.0582512 
2.68148 2.70586 0.118931 
2.38164 2.96571 0.17441 
2.11024 3.17132 0.106234 
1.6363 3.43965 0.125253 
1.04314 3.64054 0.252527 
0.662551 3.7017 0.419584 
0.309289 3.75215 0.382689 
-1.08726 3.61936 0.320624 
-1.36849 3.5143 0.350426 
-1.69729 3.34488 0.447844 
-1.98184 3.14973 0.583645 
-2.25161 2.94637 0.636576 
-2.53521 2.74159 0.532054 
-2.74116 2.50974 0.60549 
-2.98301 2.27142 0.464046 
-3.18716 1.94006 0.552318 
-3.36184 1.63093 0.527564 
-3.54352 1.23241 0.455811 
-3.64643 0.845579 0.492683 
-3.67696 0.532343 0.612465 
-3.71843 0.139633 0.583306 
-3.71175 -0.219458 0.596819 
-3.67367 -0.573897 0.59789 
-3.59339 -0.888263 0.664772 
-3.51354 -1.30314 0.487801 
-3.33462 -1.70393 0.497517 
-3.19973 -2.00613 0.332011 
-2.99545 -2.2739 0.409589 
-2.74843 -2.52118 0.557402 
-2.51358 -2.77632 0.487294 
-2.22757 -3.0216 0.450202 
-1.96176 -3.21718 0.372445 
-1.37451 -3.50889 0.366816 
-1.01617 -3.59642 0.529751 
-0.6539 -3.68106 0.520789 
-0.296612 -3.7612 0.346 
0.032862 -3.79152 0.252514 
0.403502 -3.78187 0.171668 
0.776791 -3.72563 0.152334 
1.43316 -3.51732 0.180273 
1.74403 -3.34544 0.342432 
2.13771 -3.08725 0.439753 
2.45214 -2.83474 0.478679 
2.75287 -2.552 0.452474 
3.13402 -2.14051 0.212225 
3.38106 -1.73104 0.213861 
3.50456 -1.40233 0.343568 
3.60554 -1.05495 0.430371 
3.68879 -0.730276 0.40769 
3.76813 -0.439463 0.229612 
3.75015 -0.103915 0.444418 
3.77477 0.346228 0.249531 
3.65523 1.0565 0.138248 
3.5123 1.39448 0.317534 
3.27792 1.8729 0.332052 
3.04218 2.22634 0.371701 
2.77849 2.53359 0.419106 
2.48856 2.80623 0.460659 
1.88854 3.27329 0.30736 
1.35677 3.5136 0.386966 
1.02523 3.57307 0.608728 
-0.216767 3.73698 0.497461 
-0.607101 3.70806 0.423478 
-0.871047 3.60755 0.620564 
-1.4547 3.39704 0.68519 
-2.91889 2.20617 0.801694 
-3.41719 1.3554 0.741627 
-3.53305 0.97674 0.792203 
-3.61378 0.279063 0.892223 
-3.60015 -0.0597573 0.969702 
-3.59063 -0.427331 0.922676 
-3.46369 -1.17773 0.798732 
-3.33063 -1.5269 0.784523 
-3.09294 -2.01117 0.703164 
-2.86994 -2.26942 0.806966 
-2.59587 -2.52848 0.915379 
-2.37233 -2.78348 0.80652 
-2.10439 -2.99448 0.803683 
-1.82997 -3.20036 0.708988 
-1.55425 -3.37011 0.623936 
-1.24016 -3.44821 0.783488 
-0.615867 -3.59827 0.825733 
-0.197055 -3.69587 0.666681 
0.174945 -3.72199 0.569979 
0.525998 -3.70816 0.491397 
0.853593 -3.63935 0.511682 
1.14859 -3.59603 0.33644 
1.45126 -3.43158 0.582967 
1.85083 -3.20409 0.665486 
2.97193 -2.26523 0.521417 
3.20059 -1.93982 0.507572 
3.35357 -1.6174 0.573904 
3.48632 -1.20474 0.705795 
3.59395 -0.792616 0.738291 
3.69187 -0.430887 0.598024 
3.70242 0.439647 0.541328 
3.69095 0.766609 0.376336 
3.56907 1.11828 0.512364 
3.37767 1.57035 0.578962 
2.91685 2.27188 0.673781 
2.14285 3.06664 0.525154 
1.64155 3.34704 0.542996 
1.37948 3.40722 0.755078 
0.628955 3.62596 0.735249 
0.120358 3.70951 0.626425 
-0.491925 3.64642 0.739593 
-1.12563 3.49099 0.777003 
-1.74407 3.2077 0.829863 
-2.02053 2.98502 0.967972 
-2.38361 2.74572 0.875855 
-2.66336 2.43166 0.966054 
-3.08369 1.91164 0.895354 
-3.23425 1.6193 0.933549 
-3.33807 1.26199 1.0627 
-3.54921 0.611024 0.96947 
-3.48856 0.271934 1.22235 
-3.46852 -0.209433 1.278 
-3.47207 -0.613378 1.15591 
-3.44331 -0.956715 1.05044 
-3.2856 -1.35629 1.10063 
-3.14307 -1.7885 0.931685 
-2.91541 -2.01029 1.13157 
-2.69648 -2.28084 1.14362 
-2.30167 -2.68662 1.1325 
-1.87288 -3.03301 1.06995 
-1.53702 -3.2522 0.986311 
-0.92363 -3.4987 0.928456 
-0.294314 -3.59111 0.965858 
0.0767884 -3.59794 0.986133 
0.380161 -3.61476 0.869727 
0.721712 -3.56877 0.861297 
1.11115 -3.51246 0.724313 
2.17064 -2.95856 0.773159 
2.53489 -2.65795 0.76126 
2.76053 -2.39154 0.827954 
2.9989 -2.08108 0.832361 
3.17847 -1.76772 0.870851 
3.32902 -1.42317 0.924103 
3.43801 -1.02229 1.01306 
3.53184 -0.619471 1.00781 
3.62002 -0.300278 0.875489 
3.69688 0.0961942 0.669749 
3.60986 0.711355 0.740083 
3.51037 1.00493 0.82138 
3.38511 1.34225 0.860182 
3.17341 1.91445 0.64447 
2.63233 2.56815 0.753276 
2.33789 2.82867 0.771874 
1.82628 3.18374 0.768958 
1.05215 3.46316 0.922123 
0.292445 3.62102 0.88225 
-0.137982 3.64027 0.849924 
-0.761632 3.51651 0.981156 
-1.33375 3.32725 1.01702 
-1.64041 3.12886 1.14667 
-2.40915 2.57954 1.1461 
-2.83973 2.10924 1.1353 
-3.0163 1.76112 1.23878 
-3.14312 1.43616 1.3164 
-3.2595 1.05441 1.37191 
-3.42038 0.876493 1.14215 
-3.36524 0.600731 1.3911 
-3.35319 0.142075 1.50083 
-3.30532 -0.856019 1.39151 
-3.2063 -1.19617 1.38158 
-3.07029 -1.65747 1.24207 
-2.83872 -1.82402 1.47626 
-2.62198 -2.13357 1.45948 
-2.41241 -2.44966 1.34799 
-2.03495 -2.80552 1.28655 
-1.57122 -3.08856 1.29706 
-1.20314 -3.32946 1.13033 
-0.878853 -3.33828 1.3258 
-0.586874 -3.46635 1.18429 
-0.138973 -3.47324 1.27274 
0.463254 -3.47619 1.21475 
0.909804 -3.42837 1.11228 
1.27866 -3.36145 0.984028 
1.60422 -3.25333 0.899582 
1.90353 -3.0341 1.03075 
2.30239 -2.75147 1.00738 
2.507 -2.49418 1.13709 
2.76202 -2.21178 1.1325 
2.97395 -1.89502 1.16184 
3.13432 -1.55199 1.22681 
3.26529 -1.21878 1.25439 
3.58858 0.0184859 0.998835 
3.60409 0.379697 0.902178 
3.47696 0.70233 1.1067 
3.36735 1.09654 1.12787 
3.21983 1.64617 0.93222 
3.02815 1.97564 0.931828 
2.78899 2.26649 0.992127 
2.04383 2.98144 0.93115 
1.68226 3.12723 1.10672 
1.36316 3.2892 1.07944 
0.727386 3.49791 1.04894 
0.388112 3.49751 1.17762 
-0.00595392 3.53555 1.14602 
-0.421269 3.53344 1.08324 
-0.94701 3.38047 1.19891 
-1.25297 3.21634 1.32214 
-1.80552 2.91155 1.37569 
-2.1033 2.78671 1.23476 
-2.58248 2.27874 1.33866 
-2.77833 1.93086 1.45342 
-2.92152 1.54901 1.59564 
-3.07723 1.15182 1.62626 
-3.16953 0.780339 1.66686 
-3.2213 0.393614 1.69301 
-3.28408 -0.176983 1.61817 
-3.31141 -0.524839 1.51582 
-3.00648 -1.46714 1.52664 
-2.59026 -1.8967 1.74378 
-2.11787 -2.55437 1.57472 
-1.21632 -3.16493 1.44488 
-0.433326 -3.34437 1.48027 
0.145948 -3.40062 1.41795 
0.775253 -3.32371 1.40236 
1.19095 -3.24429 1.31723 
1.54156 -3.12803 1.25333 
1.80006 -2.90419 1.38999 
2.10698 -2.76047 1.27251 
2.46563 -2.33496 1.4309 
2.73934 -2.01539 1.42257 
2.91308 -1.67786 1.49819 
3.37331 -0.794398 1.28924 
3.47463 -0.353323 1.23777 
3.45613 0.0256124 1.30543 
3.47099 0.383943 1.23408 
3.12855 1.55383 1.23509 
2.92387 1.91928 1.22803 
2.51272 2.51471 1.09243 
2.25029 2.73295 1.12282 
1.957 2.86911 1.27985 
0.990504 3.32472 1.28866 
0.66766 3.34036 1.41571 
0.279372 3.36731 1.46567 
-0.0822379 3.38802 1.44408 
-0.427966 3.39619 1.38089 
-0.727876 3.29829 1.46818 
-1.06472 3.13369 1.58764 
-1.47123 3.00786 1.5247 
-1.97365 2.66042 1.58236 
-2.2768 2.50192 1.4537 
-3.10354 -0.319901 1.8797 
-3.07903 -0.675396 1.83531 
-3.10569 -0.970255 1.68137 
-2.92375 -1.23877 1.79919 
-2.74727 -1.5817 1.80518 
-2.33397 -2.27059 1.67354 
-1.78506 -2.83074 1.52343 
-1.47006 -2.93316 1.63717 
-0.88525 -3.15375 1.6461 
-0.568549 -3.16215 1.74302 
-0.155959 -3.24739 1.68832 
0.426248 -3.27585 1.60072 
1.11255 -3.10118 1.61321 
1.46386 -2.95605 1.61262 
2.15391 -2.55214 1.53818 
2.51234 -2.04499 1.69842 
3.0611 -1.30586 1.55671 
3.18876 -0.964671 1.54996 
3.30129 -0.542426 1.52332 
3.32423 -0.148281 1.55517 
3.33122 0.321056 1.52309 
3.32175 0.819411 1.37897 
3.19876 1.236 1.37086 
2.65103 2.22174 1.30724 
2.25606 2.54145 1.43088 
1.59479 2.98878 1.45326 
1.27797 3.15501 1.41642 
0.94032 3.13419 1.65628 
0.50548 3.20216 1.69983 
0.117083 3.20632 1.75229 
-0.287888 3.22386 1.71223 
-2.85016 -0.95312 2.03698 
-2.65042 -1.32817 2.08398 
-2.44729 -1.65929 2.09577 
-2.32319 -2.00924 1.94006 
-2.02847 -2.32357 1.92907 
-1.81364 -2.60479 1.79945 
-1.48712 -2.69107 1.94485 
-1.13617 -2.95699 1.81218 
-0.771355 -2.91763 2.02184 
-0.38165 -3.01361 1.99359 
0.135324 -3.15589 1.82589 
0.768714 -3.13903 1.71568 
1.76411 -2.71327 1.70856 
2.25824 -2.25878 1.76745 
2.66449 -1.75002 1.77875 
2.83473 -1.41994 1.80624 
2.93633 -1.04984 1.88528 
3.07717 -0.750132 1.81371 
3.15371 -0.37934 1.79834 
3.17753 0.0464989 1.79691 
3.13718 0.390205 1.81763 
3.20521 0.667174 1.64777 
3.11271 1.01694 1.64677 
2.92813 1.29146 1.7605 
2.95204 1.5539 1.5424 
2.77845 1.87076 1.51272 
2.45528 2.2366 1.56272 
1.83721 2.74686 1.59084 
1.28122 2.96369 1.72065 
0.713414 3.01939 1.90107 
-2.08589 -1.98835 2.17704 
-1.67227 -2.41037 2.11874 
-1.14648 -2.72327 2.09136 
-0.0618582 -2.96286 2.08394 
0.468605 -3.04498 1.93547 
0.815016 -2.90929 2.01231 
1.18201 -2.86395 1.90968 
1.47755 -2.67137 1.97424 
1.93356 -2.44693 1.87822 
2.09974 -2.11904 2.05623 
2.36258 -1.85507 2.03355 
2.55102 -1.53394 2.06545 
2.68905 -1.20375 2.10331 
2.92319 -0.536571 2.07403 
2.98608 -0.177264 2.04911 
2.9561 0.202573 2.08791 
2.96723 0.633657 1.99701 
2.89591 0.962905 1.9749 
2.70173 1.59503 1.8543 
2.56142 1.92626 1.75303 
2.23937 2.23805 1.80843 
2.04119 2.49985 1.71928 
1.54695 2.74174 1.84167 
-1.78528 -2.12075 2.29455 
-1.31593 -2.45323 2.29029 
-0.903427 -2.62442 2.29694 
-0.484765 -2.74196 2.28994 
0.297254 -2.86296 2.18412 
1.66913 -2.39986 2.13029 
2.09255 -1.79232 2.31574 
2.76065 -0.815858 2.18486 
2.76409 -0.104354 2.30429 
2.69943 0.743421 2.27175 
2.69924 1.27664 2.05713 
2.36384 1.88323 2.00654 
1.77426 2.47666 1.98041 
-0.113294 -2.71709 2.35519 
0.69888 -2.70025 2.28431 
1.09102 -2.6274 2.22501 
1.35513 -2.39096 2.32616 
1.82572 -2.09698 2.28808 
2.32938 -1.47532 2.3169 
2.50035 -1.06836 2.35427 
2.6715 -0.463076 2.36347 
2.75782 0.416698 2.27798 
2.59361 1.03839 2.2732 
2.45907 1.53685 2.16153 
2.07452 2.13134 2.06765 
0.33352 -2.6225 2.42858 
0.693587 -2.42158 2.54013 
1.00283 -2.32863 2.52743 
1.52233 -2.076 2.48867 
1.75887 -1.79007 2.54852 
2.01964 -1.50395 2.5426 
2.2262 -1.16542 2.54317 
2.46099 -0.734374 2.49815 
2.58679 0.153087 2.47666 
1.20544 -2.06428 2.64592 
